# .PCD v0.7 - Point Cloud Data file format
VERSION 0.7
FIELDS x y z intensity
SIZE 4 4 4 4
TYPE F F F F
COUNT 1 1 1 1
WIDTH 1379
HEIGHT 1
VIEWPOINT 0 0 0 1 0 0 0
POINTS 1379
DATA ascii
-2.41646 -1.1820687 -1.0521702 0
-2.4715078 -1.2089967 -1.0563093 0
-2.5172415 -1.2313684 -1.0557561 0
-2.5666411 -1.2555335 -1.0560774 0
-2.6096263 -1.2765607 -1.0531209 0
-2.661494 -1.3019329 -1.0530941 0
-2.7179537 -1.3295516 -1.0541263 0
-2.7833054 -1.3615199 -1.0577474 0
-2.8330932 -1.3858749 -1.0546494 0
-2.8894601 -1.413448 -1.0532691 0
-2.9641087 -1.4499642 -1.0576332 0
-3.0351317 -1.4847066 -1.0596744 0
-3.111145 -1.5218904 -1.0624229 0
-3.1609254 -1.5462418 -1.0553439 0
-3.247076 -1.5883843 -1.0594652 0
-3.3150687 -1.6216446 -1.0565844 0
-3.4113851 -1.6687601 -1.0615809 0
-3.4931207 -1.7087429 -1.0607907 0
-3.5741642 -1.7483872 -1.0586597 0
-3.6817582 -1.8010194 -1.0630733 0
-3.7964089 -1.8571036 -1.0679591 0
-3.8737516 -1.8949375 -1.0610137 0
-3.9994857 -1.9564434 -1.0659091 0
-4.1239672 -2.0173366 -1.0687138 0
-4.2292819 -2.0688536 -1.0649499 0
-4.3638258 -2.1346688 -1.0668752 0
-4.5244932 -2.2132633 -1.0731169 0
-4.6466808 -2.2730343 -1.0682569 0
-4.8157945 -2.3557603 -1.0721543 0
-4.9640355 -2.4282758 -1.0691897 0
-5.1646128 -2.5263929 -1.075061 0
-5.3239164 -2.60432 -1.0698295 0
-5.5574384 -2.7185528 -1.0767697 0
-5.7888312 -2.8317442 -1.0800433 0
-6.0072279 -2.9385781 -1.0777534 0
-6.2866473 -3.0752628 -1.082936 0
-6.5402422 -3.1993146 -1.0799499 0
-6.8863893 -3.3686409 -1.0880578 0
-7.1891565 -3.5167465 -1.0847806 0
-7.601665 -3.7185349 -1.0930686 0
-7.9777923 -3.9025266 -1.0906192 0
-8.4873848 -4.1518059 -1.1002313 0
-8.9381905 -4.3723283 -1.0955197 0
-9.6105967 -4.7012515 -1.1101266 0
-10.202689 -4.9908876 -1.1066284 0
-11.055889 -5.4082508 -1.1213622 0
-11.846452 -5.7949734 -1.1182698 0
-12.77575 -6.2495613 -1.1162788 0
-14.135907 -6.9149146 -1.1359547 0
-15.477691 -7.57128 -1.1352973 0
-17.545374 -8.582736 -1.1640898 0
-19.647484 -9.6110325 -1.1660674 0
-23.078543 -11.289417 -1.2083045 0
-26.870871 -13.144525 -1.219052 0
-2.2254879 -1.1227695 -1.0477195 0
-2.2848618 -1.1527239 -1.0568517 0
-2.3175571 -1.1692189 -1.0529841 0
-2.3501408 -1.1856575 -1.0486286 0
-2.3942642 -1.2079179 -1.0488938 0
-2.4520974 -1.2370951 -1.0544353 0
-2.4892712 -1.2558494 -1.0504224 0
-2.5430071 -1.2829595 -1.0527644 0
-2.5913694 -1.3073584 -1.0521612 0
-2.6492383 -1.3365536 -1.0546679 0
-2.6990311 -1.3616743 -1.0532017 0
-2.764957 -1.3949343 -1.0572131 0
-2.8240376 -1.4247407 -1.0577199 0
-2.8814731 -1.4537171 -1.0567939 0
-2.9545457 -1.4905827 -1.0606809 0
-3.013521 -1.520336 -1.0585763 0
-3.0706396 -1.5491526 -1.055016 0
-3.1619222 -1.5952052 -1.0621455 0
-3.2300017 -1.6295515 -1.060352 0
-3.2922952 -1.6609789 -1.0557557 0
-3.3762922 -1.7033559 -1.0570984 0
-3.4636068 -1.7474065 -1.0582731 0
-3.5635946 -1.7978507 -1.0619968 0
-3.6614521 -1.8472204 -1.0636883 0
-3.7582743 -1.8960677 -1.0637097 0
-3.8488259 -1.9417515 -1.0606462 0
-3.9635742 -1.9996424 -1.062811 0
-4.0793223 -2.058038 -1.0636219 0
-4.2158995 -2.1269419 -1.068085 0
-4.3296347 -2.1843219 -1.0650023 0
-4.4839501 -2.2621746 -1.0700176 0
-4.6168876 -2.3292422 -1.0679113 0
-4.779562 -2.4113123 -1.070608 0
-4.9220376 -2.483192 -1.06664 0
-5.1248021 -2.5854876 -1.0733106 0
-5.2796526 -2.6636105 -1.0674356 0
-5.5059309 -2.7777689 -1.0733268 0
-5.6948938 -2.8731017 -1.0690278 0
-5.971746 -3.0127747 -1.0779526 0
-6.1937695 -3.1247866 -1.0734746 0
-6.5038223 -3.2812099 -1.0805167 0
-6.8018708 -3.431577 -1.0812891 0
-7.1537671 -3.6091104 -1.086055 0
-7.4934564 -3.7804852 -1.0841115 0
-7.9385962 -4.0050607 -1.0919108 0
-8.3620825 -4.2187114 -1.0906304 0
-8.9344244 -4.5074606 -1.1017681 0
-9.4582262 -4.7717209 -1.0992208 0
-10.2216 -5.1568465 -1.115473 0
-10.906806 -5.5025368 -1.1130198 0
-11.681113 -5.8931785 -1.109419 0
-12.832261 -6.473938 -1.1280868 0
-13.944674 -7.0351562 -1.1274538 0
-15.621685 -7.881216 -1.1528808 0
-17.27363 -8.7146301 -1.1530828 0
-19.929251 -10.054403 -1.1900377 0
-22.768106 -11.48662 -1.1993556 0
-26.46106 -13.349733 -1.2078159 0
-2.2220054 -1.1555036 -1.0526896 0
-2.2604492 -1.1754955 -1.052166 0
-2.2936716 -1.192772 -1.0487163 0
-2.3376477 -1.2156408 -1.0496446 0
-2.3861489 -1.2408628 -1.0519435 0
-2.4340901 -1.2657934 -1.0533053 0
-2.4871361 -1.2933789 -1.0561528 0
-2.5339892 -1.3177438 -1.0556594 0
-2.5845008 -1.3440112 -1.0560027 0
-2.6354179 -1.3704895 -1.0557952 0
-2.682513 -1.3949802 -1.0533699 0
-2.7439141 -1.4269105 -1.0557961 0
-2.8017604 -1.4569921 -1.0560067 0
-2.8631277 -1.4889048 -1.0567005 0
-2.9216797 -1.5193535 -1.0555092 0
-2.9847636 -1.5521588 -1.0550994 0
-3.0622504 -1.5924541 -1.0587814 0
-3.1255865 -1.6253905 -1.0565735 0
-3.1981742 -1.6631382 -1.0565373 0
-3.2813168 -1.7063745 -1.0588837 0
-3.3702049 -1.7525988 -1.0618596 0
-3.44681 -1.7924356 -1.0597951 0
-3.5403016 -1.8410538 -1.0617216 0
-3.6335735 -1.8895577 -1.062259 0
-3.72873 -1.9390417 -1.0620159 0
-3.8292909 -1.9913361 -1.0619303 0
-3.9572816 -2.0578949 -1.0678284 0
-4.0447164 -2.1033633 -1.0612624 0
-4.1876864 -2.1777117 -1.0676407 0
-4.2989693 -2.2355816 -1.0641407 0
-4.4395123 -2.3086681 -1.066107 0
-4.596323 -2.3902137 -1.069872 0
-4.750771 -2.470531 -1.0708827 0
-4.893446 -2.5447259 -1.0671443 0
-5.0883579 -2.6460855 -1.0724114 0
-5.2601247 -2.735409 -1.0702071 0
-5.4816942 -2.8506312 -1.0753541 0
-5.682548 -2.9550805 -1.0734501 0
-5.9457254 -3.0919402 -1.080037 0
-6.16927 -3.2081895 -1.0759845 0
-6.5015798 -3.3809996 -1.0869689 0
-6.7595501 -3.515151 -1.0813509 0
-7.1504869 -3.7184491 -1.092416 0
-7.4872942 -3.8935981 -1.0900642 0
-7.8568702 -4.0857878 -1.0874979 0
-8.3582029 -4.3464942 -1.0970123 0
-8.8155117 -4.5843077 -1.0939729 0
-9.4843569 -4.9321256 -1.1092222 0
-10.065858 -5.2345219 -1.1054177 0
-10.934169 -5.6860676 -1.1228623 0
-11.732373 -6.1011558 -1.121328 0
-12.662105 -6.584641 -1.1201615 0
-14.049787 -7.3062739 -1.1431297 0
-15.397429 -8.0070848 -1.1435105 0
-17.053194 -8.8681288 -1.1455606 0
-19.677513 -10.232845 -1.1824299 0
-22.434971 -11.6668 -1.1892742 0
-2.2094476 -1.1837109 -1.0535563 0
-2.2445087 -1.2024949 -1.0515494 0
-2.2835708 -1.2234224 -1.0508969 0
-2.3230076 -1.2445506 -1.0498631 0
-2.3722327 -1.270923 -1.0526185 0
-2.4259565 -1.2997055 -1.0566216 0
-2.4614451 -1.3187184 -1.0520495 0
-2.5072732 -1.3432709 -1.0513312 0
-2.5544038 -1.3685211 -1.0505017 0
-2.6177397 -1.4024533 -1.0555419 0
-2.6690063 -1.4299194 -1.0548909 0
-2.7335196 -1.4644824 -1.0586456 0
-2.7878599 -1.4935952 -1.0576098 0
-2.8429632 -1.5231167 -1.0560908 0
-2.9060812 -1.5569321 -1.0567104 0
-2.971781 -1.5921308 -1.0573506 0
-3.033524 -1.6252097 -1.0556791 0
-3.1001592 -1.6609094 -1.0548023 0
-3.1883655 -1.7081659 -1.0601556 0
-3.2638354 -1.7485989 -1.0601009 0
-3.3305132 -1.7843215 -1.056187 0
-3.4280024 -1.8365513 -1.0608758 0
-3.5034902 -1.8769939 -1.0575237 0
-3.6115999 -1.9349135 -1.0627103 0
-3.7013688 -1.9830072 -1.0610877 0
-3.8121698 -2.0423689 -1.0640665 0
-3.9406848 -2.1112208 -1.0702741 0
-4.0304861 -2.1593318 -1.064415 0
-4.1650405 -2.2314191 -1.0687817 0
-4.2758327 -2.290776 -1.0653057 0
-4.4236393 -2.3699636 -1.0692127 0
-4.5441966 -2.4345522 -1.0646266 0
-4.7255607 -2.5317178 -1.0721363 0
-4.8688316 -2.6084752 -1.0686905 0
-5.0630856 -2.7125466 -1.0740336 0
-5.2186227 -2.7958755 -1.0686772 0
-5.4609876 -2.9257226 -1.0782681 0
-5.6372018 -3.0201292 -1.0718184 0
-5.9236054 -3.1735699 -1.0830257 0
-6.1384397 -3.2886672 -1.0775788 0
-6.4071321 -3.4326193 -1.0781538 0
-6.733386 -3.6074097 -1.0841795 0
-7.0416665 -3.7725708 -1.0827962 0
-7.4652886 -3.9995263 -1.0939379 0
-7.8315625 -4.1957574 -1.0910538 0
-8.2422276 -4.4157715 -1.0888349 0
-8.8205204 -4.7255912 -1.1017222 0
-9.3497219 -5.0091109 -1.1005967 0
-10.077219 -5.3988671 -1.1138718 0
-10.764668 -5.7671676 -1.1126541 0
-11.564164 -6.1954975 -1.1124483 0
-12.736492 -6.8235722 -1.1340793 0
-13.862679 -7.4269266 -1.1352508 0
-15.193243 -8.1397753 -1.1356938 0
-17.29003 -9.2631283 -1.1690334 0
-19.391731 -10.389114 -1.172845 0
-22.128084 -11.855115 -1.1806445 0
-2.1906333 -1.2085298 -1.0515915 0
-2.2231224 -1.2264534 -1.0485162 0
-2.2660048 -1.2501107 -1.0498078 0
-2.3226211 -1.2813449 -1.0567293 0
-2.365396 -1.304943 -1.0566251 0
-2.3848708 -1.3156868 -1.0456941 0
-2.4566324 -1.3552762 -1.0570354 0
-2.4971347 -1.3776207 -1.0541034 0
-2.5434983 -1.4031985 -1.0530331 0
-2.6018653 -1.4353986 -1.0561782 0
-2.6539621 -1.4641393 -1.0559808 0
-2.7033949 -1.4914104 -1.0540016 0
-2.7712281 -1.5288327 -1.058352 0
-2.8379893 -1.5656636 -1.0613146 0
-2.8955901 -1.5974407 -1.0599581 0
-2.9512322 -1.6281375 -1.0570827 0
-3.0058281 -1.658257 -1.0530572 0
-3.1005704 -1.7105244 -1.0620183 0
-3.1773872 -1.7529029 -1.063592 0
-3.2419326 -1.7885112 -1.0600499 0
-3.3245103 -1.8340677 -1.0613551 0
-3.4057043 -1.8788608 -1.0610447 0
-3.5090234 -1.93586 -1.0662986 0
-3.5773613 -1.9735607 -1.0596963 0
-3.6895463 -2.0354512 -1.0647931 0
-3.7870765 -2.0892565 -1.0641527 0
-3.8973124 -2.1500716 -1.0655944 0
-4.0048389 -2.2093918 -1.064736 0
-4.1347585 -2.2810659 -1.0681281 0
-4.2421989 -2.3403387 -1.0640154 0
-4.4079232 -2.4317656 -1.0725604 0
-4.5254016 -2.4965761 -1.0673348 0
-4.6834717 -2.5837803 -1.0697145 0
-4.8353724 -2.6675808 -1.0684654 0
-5.0342946 -2.7773225 -1.0750895 0
-5.1996469 -2.8685443 -1.0719335 0
-5.4321752 -2.9968252 -1.0797734 0
-5.6237025 -3.1024873 -1.0764238 0
-5.8386483 -3.2210689 -1.0746531 0
-6.1359849 -3.3851035 -1.0843729 0
-6.374372 -3.5166171 -1.0798361 0
-6.7127223 -3.7032783 -1.0881023 0
-7.0235772 -3.8747711 -1.0872591 0
-7.3659682 -4.0636616 -1.0866238 0
-7.8130741 -4.3103209 -1.0957791 0
-8.2329082 -4.5419354 -1.0948989 0
-8.6930408 -4.7957816 -1.0930825 0
-9.3610477 -5.1643081 -1.1093211 0
-9.9493847 -5.4888821 -1.1071184 0
-10.631257 -5.8650579 -1.1062354 0
-11.612831 -6.4065733 -1.1246233 0
-12.567456 -6.9332213 -1.1265341 0
-13.663127 -7.5376816 -1.1264142 0
-15.36921 -8.4788942 -1.1565534 0
-17.044809 -9.4032898 -1.1601835 0
-19.143429 -10.561058 -1.1655935 0
-22.632296 -12.485798 -1.2156465 0
-2.1726258 -1.23368 -1.0501499 0
-2.2066314 -1.2529894 -1.0479258 0
-2.2592847 -1.2828875 -1.0539231 0
-2.3095911 -1.3114529 -1.058058 0
-2.3328748 -1.324674 -1.0492947 0
-2.3821082 -1.3526301 -1.0516962 0
-2.4316521 -1.3807627 -1.0535129 0
-2.4777002 -1.4069102 -1.0531228 0
-2.5381458 -1.4412329 -1.0580744 0
-2.5746565 -1.4619647 -1.0523511 0
-2.6341567 -1.4957507 -1.0553387 0
-2.6902127 -1.5275809 -1.0561057 0
-2.7516427 -1.5624626 -1.0581298 0
-2.8026967 -1.5914526 -1.0553548 0
-2.8477633 -1.6170427 -1.04965 0
-2.9457994 -1.6727103 -1.0624237 0
-2.9965186 -1.7015103 -1.0570458 0
-3.0639834 -1.7398187 -1.0567343 0
-3.1427102 -1.7845221 -1.0592494 0
-3.2221923 -1.8296543 -1.0608715 0
-3.312418 -1.880887 -1.0647978 0
-3.3786402 -1.9184899 -1.0598824 0
-3.4601202 -1.9647567 -1.0586996 0
-3.5581737 -2.0204344 -1.0612917 0
-3.6626801 -2.079776 -1.0643398 0
-3.763129 -2.1368139 -1.0647262 0
-3.8670554 -2.1958263 -1.0646236 0
-3.9726474 -2.2557845 -1.0634717 0
-4.099442 -2.3277822 -1.0663185 0
-4.2180457 -2.3951287 -1.0652639 0
-4.3671303 -2.4797833 -1.0699732 0
-4.4873881 -2.5480692 -1.0656784 0
-4.6577053 -2.6447802 -1.0711764 0
-4.8050938 -2.7284718 -1.0691077 0
-4.999505 -2.8388641 -1.0750335 0
-5.1817288 -2.9423361 -1.0756171 0
-5.3632984 -3.0454366 -1.0734451 0
-5.5933313 -3.1760559 -1.0780044 0
-5.8180013 -3.3036301 -1.0782484 0
-6.0989871 -3.463182 -1.0852783 0
-6.3501835 -3.6058185 -1.0831677 0
-6.6305676 -3.7650287 -1.082208 0
-7.0093451 -3.9801097 -1.0925494 0
-7.3457546 -4.1711326 -1.0911257 0
-7.7219715 -4.3847594 -1.0904814 0
-8.2280617 -4.672132 -1.1018115 0
-8.6941214 -4.9367743 -1.1007683 0
-9.2309418 -5.2415972 -1.1014578 0
-9.8112535 -5.5711145 -1.0992876 0
-10.672451 -6.0601277 -1.1181912 0
-11.464491 -6.509871 -1.1179252 0
-12.392883 -7.0370388 -1.1185575 0
-13.781558 -7.8255687 -1.1440245 0
-15.144087 -8.5992527 -1.147483 0
-16.80714 -9.543582 -1.1519068 0
-18.867483 -10.713505 -1.1567258 0
-22.297649 -12.661253 -1.205943 0
-2.1582069 -1.2608345 -1.0505949 0
-2.2007771 -1.285704 -1.052574 0
-2.2328947 -1.3044673 -1.0490159 0
-2.2885001 -1.3369522 -1.0558474 0
-2.307544 -1.3480779 -1.0452782 0
-2.368283 -1.3835618 -1.0530241 0
-2.4138019 -1.4101541 -1.0532122 0
-2.4626245 -1.4386766 -1.0541546 0
-2.5103924 -1.4665828 -1.0539428 0
-2.5566363 -1.4935987 -1.0524129 0
-2.6101947 -1.5248877 -1.0531714 0
-2.6610138 -1.5545765 -1.0520679 0
-2.7311301 -1.5955389 -1.0577064 0
-2.7938051 -1.6321537 -1.0594838 0
-2.8483052 -1.6639929 -1.0573115 0
-2.9093628 -1.699663 -1.0567404 0
-2.9845417 -1.743583 -1.0603038 0
-3.0388062 -1.7752845 -1.0555 0
-3.1275887 -1.8271517 -1.0616452 0
-3.2099471 -1.8752658 -1.0643513 0
-3.2770312 -1.9144567 -1.0609097 0
-3.3651249 -1.9659214 -1.0631458 0
-3.4488831 -2.0148535 -1.0627617 0
-3.547605 -2.0725272 -1.0656602 0
-3.6264029 -2.118561 -1.0612878 0
-3.7318802 -2.1801815 -1.0633895 0
-3.8355551 -2.2407489 -1.0634565 0
-3.9602082 -2.3135719 -1.0676767 0
-4.0648751 -2.3747187 -1.0648421 0
-4.181282 -2.442724 -1.0634845 0
-4.334301 -2.5321186 -1.0694776 0
-4.4632845 -2.6074715 -1.0674878 0
-4.6349969 -2.7077866 -1.0735303 0
-4.7783585 -2.7915387 -1.0707155 0
-4.9295502 -2.8798659 -1.0675251 0
-5.1435781 -3.0049021 -1.0752865 0
-5.3146839 -3.1048627 -1.0712754 0
-5.5673265 -3.2524576 -1.0806187 0
-5.7738357 -3.3731012 -1.0776687 0
-6.0109591 -3.5116298 -1.0772165 0
-6.3270359 -3.6962833 -1.08689 0
-6.5920806 -3.8511238 -1.0835736 0
-6.9005179 -4.0313144 -1.0832313 0
-7.2378917 -4.2284098 -1.0827453 0
-7.7005091 -4.498673 -1.0951797 0
-8.1118536 -4.7389822 -1.0939708 0
-8.5715475 -5.0075374 -1.0929626 0
-9.2205362 -5.3866796 -1.108036 0
-9.8223572 -5.738266 -1.1083537 0
-10.514812 -6.1428013 -1.1095051 0
-11.300267 -6.6016679 -1.1097432 0
-12.469195 -7.2845607 -1.1334444 0
-13.584022 -7.9358473 -1.1356413 0
-14.932619 -8.7237043 -1.1395017 0
-16.562574 -9.6759329 -1.1432133 0
-19.192833 -11.212542 -1.1850355 0
-21.991484 -12.847526 -1.1978379 0
-25.741163 -15.038106 -1.2149101 0
-2.1499333 -1.2917168 -1.0542198 0
-2.1858997 -1.313326 -1.0531027 0
-2.2219324 -1.3349751 -1.0514984 0
-2.2684824 -1.3629431 -1.0542644 0
-2.3103085 -1.388073 -1.0541824 0
-2.3481312 -1.4107974 -1.0516977 0
-2.3953559 -1.439171 -1.0528058 0
-2.4479976 -1.470799 -1.0555553 0
-2.5137255 -1.5102894 -1.0630586 0
-2.5402203 -1.5262078 -1.053301 0
-2.6008584 -1.5626403 -1.0570774 0
-2.6522014 -1.5934881 -1.0562508 0
-2.7039199 -1.6245614 -1.0548251 0
-2.7624817 -1.6597463 -1.0552651 0
-2.8368707 -1.7044406 -1.0607668 0
-2.8885648 -1.7354991 -1.0568576 0
-2.9556351 -1.7757961 -1.0577118 0
-3.0306818 -1.8208855 -1.0603751 0
-3.0876253 -1.8550981 -1.0557431 0
-3.1723156 -1.9059815 -1.0595647 0
-3.2490878 -1.9521077 -1.0595543 0
-3.3370025 -2.0049281 -1.0619695 0
-3.4081883 -2.0476978 -1.0579007 0
-3.5118246 -2.1099644 -1.0626254 0
-3.5952566 -2.1600916 -1.0598658 0
-3.7202351 -2.2351811 -1.0678223 0
-3.8131769 -2.2910221 -1.0649823 0
-3.9441772 -2.3697293 -1.0711297 0
-4.044816 -2.4301949 -1.0673349 0
-4.1633201 -2.501394 -1.0666586 0
-4.29001 -2.5775113 -1.0662887 0
-4.4368401 -2.6657293 -1.068922 0
-4.5891776 -2.7572565 -1.0706897 0
-4.7439179 -2.8502274 -1.0707707 0
-4.8950267 -2.941016 -1.0677997 0
-5.1189799 -3.0755708 -1.0779687 0
-5.2921214 -3.1795971 -1.0745271 0
-5.4986315 -3.3036718 -1.0750887 0
-5.748991 -3.4540923 -1.0808772 0
-5.9890342 -3.5983143 -1.081135 0
-6.2593355 -3.760716 -1.0831221 0
-6.5094604 -3.9109955 -1.0778165 0
-6.8978977 -4.1443748 -1.0907373 0
-7.2272072 -4.3422298 -1.0890521 0
-7.5957117 -4.5636334 -1.0881739 0
-8.1151991 -4.8757505 -1.102424 0
-8.5689955 -5.1483994 -1.1006263 0
-9.0912123 -5.4621563 -1.1004832 0
-9.6992865 -5.8274975 -1.102469 0
-10.555995 -6.3422227 -1.1219949 0
-11.360497 -6.8255811 -1.1238155 0
-12.294598 -7.3868046 -1.1257451 0
-13.400635 -8.0513306 -1.1285015 0
-14.720954 -8.8446016 -1.1315633 0
-16.789858 -10.087634 -1.1673747 0
-18.942034 -11.380698 -1.1781017 0
-21.697342 -13.036135 -1.1904577 0
-25.377317 -15.247127 -1.2064952 0
-2.1312034 -1.3163952 -1.0528932 0
-2.166512 -1.3382045 -1.0516105 0
-2.2102084 -1.3651948 -1.0538146 0
-2.2532961 -1.3918091 -1.0550808 0
-2.2937851 -1.4168181 -1.0545126 0
-2.3271368 -1.4374187 -1.0501317 0
-2.376672 -1.4680154 -1.052448 0
-2.433465 -1.5030951 -1.0571786 0
-2.4645333 -1.5222855 -1.0500919 0
-2.5238838 -1.5589449 -1.054396 0
-2.5656509 -1.5847434 -1.0506084 0
-2.6293385 -1.6240819 -1.055019 0
-2.6831813 -1.6573392 -1.0546052 0
-2.7471764 -1.6968675 -1.057309 0
-2.8085575 -1.7347811 -1.0580763 0
-2.8681626 -1.7715979 -1.0572833 0
-2.925683 -1.807127 -1.0548656 0
-3.0149064 -1.8622382 -1.0627871 0
-3.0864685 -1.9064404 -1.0632828 0
-3.1581514 -1.9507172 -1.0627651 0
-3.2370269 -1.999437 -1.0635585 0
-3.303046 -2.0402155 -1.059067 0
-3.3887479 -2.0931516 -1.0597755 0
-3.4833939 -2.151612 -1.0619479 0
-3.5616648 -2.1999583 -1.057858 0
-3.6791751 -2.2725418 -1.0639772 0
-3.7801549 -2.3349144 -1.0636979 0
-3.9082079 -2.41401 -1.0693419 0
-4.0112948 -2.4776843 -1.0664482 0
-4.1337934 -2.5533488 -1.0670571 0
-4.2749681 -2.6405492 -1.0705394 0
-4.4080734 -2.7227652 -1.0699768 0
-4.5284729 -2.7971334 -1.0644709 0
-4.7234864 -2.9175887 -1.0741756 0
-4.8718429 -3.0092249 -1.0707332 0
-5.0468302 -3.1173108 -1.0707663 0
-5.2698207 -3.2550468 -1.0780447 0
-5.4599504 -3.3724856 -1.0755527 0
-5.6616278 -3.497057 -1.0724556 0
-5.9638734 -3.6837471 -1.0846881 0
-6.2158508 -3.8393879 -1.0836849 0
-6.4910069 -4.0093455 -1.0828422 0
-6.8008685 -4.2007399 -1.0834805 0
-7.220624 -4.4600129 -1.0962412 0
-7.5788255 -4.6812658 -1.0939187 0
-7.9931211 -4.9371667 -1.0940048 0
-8.4553595 -5.222681 -1.0941967 0
-9.1147718 -5.6299844 -1.111631 0
-9.7079325 -5.996366 -1.1117487 0
-10.408147 -6.4288726 -1.1145983 0
-11.191776 -6.9129019 -1.1154497 0
-12.120239 -7.4863925 -1.1181246 0
-13.511094 -8.3454914 -1.1463587 0
-14.87993 -9.1909895 -1.1523836 0
-16.564417 -10.231458 -1.1603599 0
-18.660902 -11.526409 -1.1693434 0
-21.370684 -13.200179 -1.1813515 0
-2.1185882 -1.3448689 -1.054751 0
-2.1607556 -1.3716366 -1.0569233 0
-2.1772926 -1.3821342 -1.0461448 0
-2.2386737 -1.4210985 -1.0563363 0
-2.2740681 -1.4435668 -1.0535291 0
-2.3079655 -1.4650847 -1.0495307 0
-2.3620088 -1.499391 -1.0540396 0
-2.4022322 -1.5249246 -1.0516768 0
-2.4589958 -1.5609578 -1.055831 0
-2.5120666 -1.594647 -1.0575711 0
-2.5524282 -1.6202683 -1.0532728 0
-2.6072302 -1.6550562 -1.0542344 0
-2.6676028 -1.6933805 -1.0565865 0
-2.7338319 -1.7354223 -1.060306 0
-2.7917728 -1.772203 -1.0598825 0
-2.8509531 -1.8097703 -1.0590627 0
-2.9180772 -1.8523804 -1.0602558 0
-2.9952219 -1.9013515 -1.0640093 0
-3.0498645 -1.9360384 -1.058794 0
-3.1183488 -1.9795117 -1.0574821 0
-3.215606 -2.0412502 -1.0646869 0
-3.2815208 -2.0830925 -1.0602981 0
-3.3921063 -2.1532917 -1.0690255 0
-3.4644248 -2.199199 -1.0643288 0
-3.5439935 -2.2497089 -1.0607456 0
-3.6481378 -2.315819 -1.0631562 0
-3.7525034 -2.3820698 -1.0640789 0
-3.8727024 -2.4583716 -1.0678174 0
-3.9863384 -2.5305071 -1.0680052 0
-4.0897713 -2.5961659 -1.0638539 0
-4.2434812 -2.6937401 -1.0708684 0
-4.3783383 -2.7793465 -1.0709739 0
-4.4972324 -2.85482 -1.0652987 0
-4.6857738 -2.9745052 -1.0738358 0
-4.8461132 -3.0762877 -1.073311 0
-5.0167122 -3.1845829 -1.0726035 0
-5.1996894 -3.3007362 -1.0719199 0
-5.4431376 -3.4552758 -1.0805287 0
-5.6538997 -3.5890663 -1.07927 0
-5.8781004 -3.7313879 -1.0773516 0
-6.1280303 -3.8900421 -1.0766321 0
-6.4792428 -4.1129899 -1.0892344 0
-6.7808127 -4.3044248 -1.0886353 0
-7.097847 -4.5056767 -1.0859305 0
-7.4687061 -4.741096 -1.0863569 0
-7.9908953 -5.0725789 -1.1021539 0
-8.4604883 -5.3706741 -1.103323 0
-8.9745016 -5.6969676 -1.102984 0
-9.5865955 -6.0855212 -1.1063391 0
-10.249356 -6.5062385 -1.1060774 0
-11.046444 -7.0122252 -1.1094749 0
-12.194237 -7.7408385 -1.1336464 0
-13.328549 -8.4608946 -1.1396117 0
-14.676997 -9.3168821 -1.1454532 0
-16.333023 -10.368119 -1.1529943 0
-18.398275 -11.679131 -1.1617978 0
-21.076155 -13.379034 -1.1740756 0
-2.1034024 -1.3718014 -1.055509 0
-2.1306872 -1.3895961 -1.0504941 0
-2.1778007 -1.4203225 -1.0547007 0
-2.2111723 -1.4420869 -1.0516474 0
-2.2604606 -1.4742318 -1.0555435 0
-2.2951763 -1.4968729 -1.0520055 0
-2.3389795 -1.5254406 -1.0520539 0
-2.3914056 -1.5596319 -1.0552531 0
-2.4289758 -1.5841345 -1.0512255 0
-2.4911687 -1.6246955 -1.0571039 0
-2.5350778 -1.6533324 -1.0544227 0
-2.5864189 -1.6868161 -1.0541266 0
-2.643842 -1.7242664 -1.0554934 0
-2.700125 -1.7609731 -1.0555514 0
-2.7571096 -1.7981375 -1.0550373 0
-2.8190134 -1.8385099 -1.0555161 0
-2.8972971 -1.8895652 -1.0610675 0
-2.9570324 -1.9285235 -1.0587871 0
-3.0202518 -1.9697541 -1.0568423 0
-3.0910094 -2.0159009 -1.0565372 0
-3.1762705 -2.0715067 -1.0600166 0
-3.2509084 -2.1201842 -1.0587505 0
-3.351284 -2.1856475 -1.0645497 0
-3.4113629 -2.2248297 -1.0563521 0
-3.5148318 -2.2923102 -1.0603737 0
-3.6290684 -2.3668134 -1.0659999 0
-3.7144351 -2.422488 -1.0616506 0
-3.8253491 -2.4948242 -1.0631392 0
-3.9529798 -2.5780625 -1.0674804 0
-4.0702705 -2.6545575 -1.0671914 0
-4.1918235 -2.7338321 -1.0662348 0
-4.3524351 -2.8385799 -1.0730945 0
-4.4921098 -2.9296734 -1.0725375 0
-4.6194363 -3.0127137 -1.0670425 0
-4.8110209 -3.1376617 -1.0740027 0
-4.9903131 -3.2545929 -1.0754344 0
-5.1689343 -3.3710864 -1.0740439 0
-5.3599372 -3.4956551 -1.0724642 0
-5.6311259 -3.6725194 -1.0834612 0
-5.8670464 -3.8263824 -1.0838672 0
-6.1095433 -3.9845347 -1.0819105 0
-6.3835149 -4.1632142 -1.0816658 0
-6.6644588 -4.3464408 -1.0784541 0
-7.1090269 -4.6363797 -1.0962805 0
-7.4742293 -4.8745584 -1.0957959 0
-7.8847127 -5.1422682 -1.0961469 0
-8.3400774 -5.439249 -1.0962597 0
-8.8735294 -5.7871571 -1.0992372 0
-9.4511404 -6.1638641 -1.0993708 0
-10.293161 -6.7130156 -1.1196283 0
-11.098869 -7.2384834 -1.1235951 0
-12.031975 -7.8470383 -1.1274467 0
-13.139953 -8.5696411 -1.1324106 0
-14.481404 -9.4445124 -1.1391659 0
-16.101364 -10.501021 -1.1456696 0
-18.751717 -12.229533 -1.1935225 0
-21.579372 -14.07368 -1.2116568 0
-2.0820572 -1.3946669 -1.0533239 0
-2.1120391 -1.4147503 -1.0497975 0
-2.1582892 -1.445731 -1.0537814 0
-2.1869993 -1.4649624 -1.0486387 0
-2.236444 -1.498083 -1.0528511 0
-2.2801092 -1.5273322 -1.0536281 0
-2.3211722 -1.5548382 -1.0525643 0
-2.3655233 -1.5845469 -1.0523504 0
-2.4177196 -1.6195105 -1.0548929 0
-2.4583609 -1.6467341 -1.0516951 0
-2.512526 -1.6830167 -1.0535709 0
-2.562865 -1.7167362 -1.0530509 0
-2.6304486 -1.7620072 -1.0587162 0
-2.6769111 -1.79313 -1.0550163 0
-2.7373004 -1.8335819 -1.0560049 0
-2.8070974 -1.8803355 -1.0596317 0
-2.8614426 -1.9167386 -1.0564884 0
-2.9435797 -1.9717581 -1.0625713 0
-3.0074828 -2.0145636 -1.0609622 0
-3.0762618 -2.0606351 -1.0600771 0
-3.1569242 -2.1146672 -1.0621578 0
-3.2221699 -2.1583719 -1.0579547 0
-3.3139756 -2.2198679 -1.0612892 0
-3.3947494 -2.2739744 -1.0597861 0
-3.4948416 -2.3410211 -1.062947 0
-3.5933659 -2.4070177 -1.0641263 0
-3.7033794 -2.4807103 -1.0671287 0
-3.7843292 -2.5349345 -1.0603217 0
-3.9119322 -2.6204095 -1.0650165 0
-4.0475702 -2.7112668 -1.0698999 0
-4.1689901 -2.7925999 -1.0690807 0
-4.3182578 -2.8925869 -1.0733564 0
-4.4623456 -2.9891043 -1.0741256 0
-4.6009312 -3.0819356 -1.0714407 0
-4.7644739 -3.1914852 -1.0722914 0
-4.9599247 -3.3224077 -1.0776083 0
-5.1399951 -3.443028 -1.0767465 0
-5.3357282 -3.5741401 -1.0763327 0
-5.5559907 -3.7216828 -1.0777285 0
-5.7625661 -3.8600576 -1.0732532 0
-6.1000509 -4.0861216 -1.0890448 0
-6.3644762 -4.263247 -1.0872403 0
-6.664813 -4.4644279 -1.0873128 0
-7.0025806 -4.6906819 -1.0886778 0
-7.3672872 -4.9349804 -1.0889314 0
-7.7936692 -5.220593 -1.0923319 0
-8.3471842 -5.5913653 -1.1061476 0
-8.8740969 -5.9443178 -1.1082784 0
-9.4649134 -6.340076 -1.1099575 0
-10.14204 -6.7936497 -1.1121929 0
-10.948451 -7.3338246 -1.1174124 0
-11.869086 -7.9505129 -1.1212595 0
-12.961914 -8.6825438 -1.126183 0
-14.275322 -9.5623302 -1.1321186 0
-16.342194 -10.946825 -1.1722945 0
-18.486589 -12.383249 -1.1862495 0
-21.267612 -14.24612 -1.2038969 0
-2.0563083 -1.4143541 -1.0490165 0
-2.0972352 -1.442504 -1.0511763 0
-2.1450856 -1.4754162 -1.0561129 0
-2.1703997 -1.4928275 -1.0494019 0
-2.2195394 -1.5266265 -1.0536506 0
-2.2638478 -1.5571023 -1.0548817 0
-2.3127716 -1.5907527 -1.0575449 0
-2.34167 -1.6106293 -1.05047 0
-2.3932419 -1.6461011 -1.0529648 0
-2.4456787 -1.6821678 -1.0550388 0
-2.4848814 -1.709132 -1.0507119 0
-2.5590551 -1.7601495 -1.0602984 0
-2.5948341 -1.7847588 -1.0531353 0
-2.6638379 -1.8322203 -1.0586632 0
-2.7058184 -1.8610951 -1.0526087 0
-2.7838798 -1.9147866 -1.0596751 0
-2.8302515 -1.9466817 -1.0537305 0
-2.8990507 -1.9940027 -1.0552684 0
-2.9713211 -2.0437112 -1.0569907 0
-3.0405383 -2.0913196 -1.0565486 0
-3.1218688 -2.1472597 -1.0591669 0
-3.2015405 -2.2020588 -1.0599917 0
-3.2950838 -2.2663991 -1.0640836 0
-3.3769333 -2.3226962 -1.0630602 0
-3.451546 -2.3740156 -1.0585774 0
-3.5744555 -2.4585545 -1.0673982 0
-3.6638689 -2.5200541 -1.0645924 0
-3.7620132 -2.587559 -1.0629036 0
-3.8766856 -2.6664319 -1.0642667 0
-4.0005264 -2.7516115 -1.0663279 0
-4.1335449 -2.8431029 -1.0688754 0
-4.2477374 -2.9216459 -1.064677 0
-4.4198203 -3.0400066 -1.0728062 0
-4.566124 -3.140636 -1.0722473 0
-4.7248745 -3.2498267 -1.0722917 0
-4.880722 -3.3570206 -1.0692883 0
-5.0752482 -3.490818 -1.072094 0
-5.3195987 -3.6588855 -1.082073 0
-5.5064096 -3.7873762 -1.0770632 0
-5.7411704 -3.9488473 -1.0782303 0
-5.9879637 -4.1185951 -1.0779939 0
-6.2854977 -4.3232427 -1.0827481 0
-6.5683417 -4.517786 -1.0805556 0
-6.9818182 -4.8021803 -1.0945475 0
-7.3683734 -5.068058 -1.0982202 0
-7.7664194 -5.3418388 -1.0976359 0
-8.2308207 -5.6612592 -1.0998693 0
-8.7512035 -6.0191855 -1.1020907 0
-9.3391323 -6.4235702 -1.1043864 0
-10.002224 -6.8796525 -1.1060537 0
-10.782051 -7.4160271 -1.1096526 0
-11.706805 -8.052084 -1.1151981 0
-13.070122 -8.98979 -1.1451024 0
-14.430872 -9.9257307 -1.1540468 0
-16.115316 -11.084312 -1.1657088 0
-18.22175 -12.533143 -1.1790553 0
-20.97102 -14.424125 -1.1970572 0
-2.0404172 -1.4406989 -1.0498679 0
-2.0798407 -1.4685351 -1.0514293 0
-2.1278565 -1.5024381 -1.0566461 0
-2.1637158 -1.5277578 -1.0551736 0
-2.1960018 -1.550554 -1.0514485 0
-2.2441554 -1.5845544 -1.054705 0
-2.2887094 -1.6160131 -1.0555488 0
-2.3445792 -1.6554617 -1.0608267 0
-2.3658578 -1.6704862 -1.0498748 0
-2.4205616 -1.7091113 -1.05319 0
-2.471179 -1.7448514 -1.0539105 0
-2.5373709 -1.7915882 -1.0603615 0
-2.5770729 -1.819621 -1.0549281 0
-2.6382396 -1.8628097 -1.0575134 0
-2.6835799 -1.8948236 -1.0529419 0
-2.7504063 -1.9420083 -1.0559435 0
-2.8231666 -1.993383 -1.0601385 0
-2.8954084 -2.0443914 -1.0630128 0
-2.954771 -2.0863063 -1.0601492 0
-3.032866 -2.1414475 -1.0629523 0
-3.1036062 -2.191396 -1.0620327 0
-3.1836226 -2.247894 -1.0631306 0
-3.2613094 -2.302747 -1.0622405 0
-3.3465245 -2.3629158 -1.0625538 0
-3.4306769 -2.4223342 -1.0612321 0
-3.5222919 -2.4870217 -1.0608732 0
-3.6462879 -2.5745728 -1.0686018 0
-3.7391663 -2.6401525 -1.0655404 0
-3.8348086 -2.7076838 -1.0618304 0
-3.9709997 -2.8038456 -1.0675668 0
-4.0975008 -2.8931653 -1.0686735 0
-4.2347903 -2.990103 -1.0705667 0
-4.3547606 -3.0748117 -1.0661113 0
-4.5106421 -3.1848764 -1.0683343 0
-4.7107916 -3.3261981 -1.0782963 0
-4.8700352 -3.438637 -1.0761291 0
-5.0521817 -3.5672472 -1.076406 0
-5.2425799 -3.7016838 -1.0755839 0
-5.4553752 -3.8519342 -1.0762641 0
-5.6732492 -4.0057707 -1.0746437 0
-5.9761114 -4.2196159 -1.085119 0
-6.2581716 -4.4187732 -1.0873185 0
-6.5714755 -4.6399913 -1.0903748 0
-6.8862286 -4.8622317 -1.0888525 0
-7.2589812 -5.1254253 -1.0912268 0
-7.6659236 -5.4127593 -1.0927567 0
-8.1263065 -5.7378268 -1.0952486 0
-8.6285734 -6.0924683 -1.0959989 0
-9.3724957 -6.6177368 -1.1178701 0
-10.063319 -7.105514 -1.1223865 0
-10.850129 -7.6610651 -1.1262691 0
-11.79182 -8.3259745 -1.1329639 0
-12.893657 -9.10396 -1.1393638 0
-14.245203 -10.058261 -1.1490027 0
-15.89635 -11.224103 -1.1597656 0
-17.971737 -12.689494 -1.1728858 0
-20.69252 -14.610586 -1.1913252 0
-24.364811 -17.203518 -1.215493 0
-2.0212448 -1.464733 -1.0491909 0
-2.0506837 -1.4860666 -1.0458483 0
-2.1075988 -1.5273111 -1.0558329 0
-2.1383393 -1.5495877 -1.0520109 0
-2.1695046 -1.5721724 -1.0479387 0
-2.2331145 -1.6182684 -1.0587881 0
-2.2540193 -1.6334175 -1.0487338 0
-2.309371 -1.6735291 -1.0541277 0
-2.3581667 -1.70889 -1.0557069 0
-2.3935869 -1.7345577 -1.0506542 0
-2.4476047 -1.7737029 -1.0530787 0
-2.5029092 -1.8137802 -1.0552008 0
-2.5643301 -1.85829 -1.0589856 0
-2.618969 -1.8978852 -1.0590634 0
-2.6678061 -1.9332758 -1.0560005 0
-2.7257769 -1.9752854 -1.0557331 0
-2.7937264 -2.0245264 -1.0583515 0
-2.8395519 -2.0577347 -1.051716 0
-2.9228723 -2.1181145 -1.0579691 0
-2.9924722 -2.1685512 -1.0580609 0
-3.0800996 -2.2320521 -1.0633005 0
-3.133842 -2.2709975 -1.0557524 0
-3.2266812 -2.3382752 -1.0602465 0
-3.3190453 -2.4052086 -1.063139 0
-3.4108942 -2.4717686 -1.0644341 0
-3.4934106 -2.5315657 -1.06147 0
-3.6143019 -2.6191719 -1.0685858 0
-3.7126577 -2.6904471 -1.0673332 0
-3.8274188 -2.7736108 -1.0691469 0
-3.912817 -2.8354964 -1.0612181 0
-4.0437541 -2.9303823 -1.0639733 0
-4.1990738 -3.0429378 -1.0709157 0
-4.3427687 -3.147069 -1.0725682 0
-4.4646769 -3.2354121 -1.0667897 0
-4.6397495 -3.3622818 -1.0714176 0
-4.7982779 -3.4771621 -1.0696399 0
-5.0268111 -3.6427732 -1.0804625 0
-5.227366 -3.7881091 -1.0819373 0
-5.431725 -3.9362018 -1.0810655 0
-5.6550193 -4.0980158 -1.0806541 0
-5.9137359 -4.2855 -1.0832796 0
-6.1730132 -4.4733901 -1.0819981 0
-6.4648442 -4.6848707 -1.0821587 0
-6.8128004 -4.9370241 -1.0867591 0
-7.2563214 -5.2584295 -1.100464 0
-7.666801 -5.5558915 -1.102537 0
-8.1202202 -5.88447 -1.1040971 0
-8.636096 -6.2583098 -1.1066456 0
-9.2248497 -6.6849604 -1.1099806 0
-9.9146557 -7.1848416 -1.1155751 0
-10.693098 -7.7489548 -1.1197749 0
-11.623789 -8.4233971 -1.1266861 0
-12.716219 -9.2150469 -1.1336114 0
-14.035644 -10.171193 -1.1421015 0
-15.659464 -11.347925 -1.1525762 0
-17.725243 -12.844931 -1.1670188 0
-20.385817 -14.772964 -1.1840364 0
-24.01494 -17.402878 -1.2086231 0
-2.0106785 -1.4951231 -1.0531698 0
-2.0447185 -1.5204349 -1.0522614 0
-2.0798965 -1.546593 -1.0514027 0
-2.1243389 -1.5796399 -1.0545995 0
-2.1521802 -1.6003425 -1.0489964 0
-2.1923153 -1.6301867 -1.0488689 0
-2.2611711 -1.6813872 -1.0616007 0
-2.278965 -1.6946187 -1.0496808 0
-2.3392587 -1.7394525 -1.0567377 0
-2.3836801 -1.7724838 -1.0557928 0
-2.4286547 -1.8059266 -1.0544001 0
-2.4696753 -1.8364292 -1.0506305 0
-2.5373194 -1.8867286 -1.057332 0
-2.5807292 -1.9190079 -1.0530626 0
-2.6432083 -1.9654667 -1.0557506 0
-2.7085385 -2.0140457 -1.0585685 0
-2.7639372 -2.0552399 -1.0565605 0
-2.8403695 -2.1120741 -1.0615577 0
-2.8962343 -2.1536145 -1.0578326 0
-2.9650447 -2.2047815 -1.0578691 0
-3.0568321 -2.2730339 -1.0648365 0
-3.1265035 -2.324841 -1.0628306 0
-3.1913121 -2.3730319 -1.0581328 0
-3.2977612 -2.4521866 -1.0658994 0
-3.3804243 -2.5136542 -1.0644907 0
-3.4704201 -2.5805743 -1.0640457 0
-3.5541627 -2.6428447 -1.0603333 0
-3.6761591 -2.7335601 -1.0664231 0
-3.7866433 -2.8157151 -1.0673478 0
-3.8980989 -2.8985925 -1.0668126 0
-4.0219617 -2.9906957 -1.0678347 0
-4.1463318 -3.0831764 -1.067053 0
-4.2987404 -3.196506 -1.0713208 0
-4.462194 -3.3180485 -1.0758638 0
-4.6211624 -3.4362562 -1.0768012 0
-4.780673 -3.554867 -1.0753787 0
-4.9417491 -3.6746418 -1.0718104 0
-5.1369848 -3.8198171 -1.0728712 0
-5.3569541 -3.9833846 -1.0758514 0
-5.5811458 -4.1500916 -1.0762078 0
-5.8765678 -4.3697648 -1.0862318 0
-6.1428204 -4.5677481 -1.0864687 0
-6.4532523 -4.7985826 -1.0900129 0
-6.782568 -5.0434585 -1.0917467 0
-7.1454763 -5.313314 -1.0934794 0
-7.540309 -5.6069083 -1.0941787 0
-8.0037031 -5.9514842 -1.0981219 0
-8.5112667 -6.3289037 -1.1005388 0
-9.0984592 -6.7655354 -1.1046993 0
-9.7758465 -7.2692347 -1.1099302 0
-10.549138 -7.8442478 -1.1147162 0
-11.4382 -8.5053463 -1.1187499 0
-12.528608 -9.316164 -1.1270137 0
-13.833734 -10.286644 -1.1358786 0
-15.445366 -11.48504 -1.147126 0
-17.461983 -12.984579 -1.1601104 0
-20.098141 -14.944803 -1.1779122 0
-23.674877 -17.604433 -1.2023121 0
-1.9952098 -1.5220718 -1.054791 0
-2.0240116 -1.5440437 -1.0512965 0
-2.0730948 -1.5814875 -1.0577148 0
-2.0903783 -1.5946724 -1.0473956 0
-2.1392198 -1.6319317 -1.0523807 0
-2.1801071 -1.6631233 -1.0527327 0
-2.2182174 -1.6921961 -1.051124 0
-2.2639172 -1.7270588 -1.0524518 0
-2.3207932 -1.7704474 -1.0581505 0
-2.3673539 -1.8059667 -1.0583175 0
-2.4183483 -1.8448687 -1.0596943 0
-2.4516785 -1.870295 -1.0526785 0
-2.5033987 -1.9097505 -1.0529029 0
-2.5604417 -1.9532665 -1.0545052 0
-2.6206303 -1.9991821 -1.0564716 0
-2.6815248 -2.0456362 -1.0577618 0
-2.7333922 -2.0852039 -1.054606 0
-2.8205557 -2.1516976 -1.0639606 0
-2.865397 -2.1859055 -1.056307 0
-2.9318721 -2.2366171 -1.0557663 0
-3.0114279 -2.2973073 -1.0587806 0
-3.0894346 -2.3568156 -1.0600009 0
-3.1590381 -2.4099135 -1.0571774 0
-3.2343559 -2.4673707 -1.0551323 0
-3.353653 -2.558378 -1.0658861 0
-3.44593 -2.6287727 -1.0663671 0
-3.5254862 -2.6894634 -1.061564 0
-3.6247282 -2.7651713 -1.0612868 0
-3.7591424 -2.8677108 -1.0694547 0
-3.8893569 -2.9670467 -1.0743237 0
-3.9889629 -3.0430324 -1.0689274 0
-4.1117301 -3.136687 -1.0679934 0
-4.2580729 -3.2483265 -1.0710593 0
-4.3879433 -3.3474 -1.0678052 0
-4.5495367 -3.4706733 -1.0699749 0
-4.7513595 -3.6246367 -1.0787289 0
-4.930654 -3.7614141 -1.0793539 0
-5.1172509 -3.9037619 -1.0786936 0
-5.3311563 -4.0669422 -1.0806321 0
-5.5620022 -4.2430458 -1.0824952 0
-5.8077898 -4.4305487 -1.0835072 0
-6.057056 -4.6207042 -1.0812674 0
-6.3551822 -4.8481336 -1.0834355 0
-6.7003584 -5.1114559 -1.0885487 0
-7.0496831 -5.377943 -1.0888577 0
-7.4527144 -5.6854005 -1.0915301 0
-7.8998437 -6.0264988 -1.0939568 0
-8.4089422 -6.4148717 -1.0974246 0
-8.9958324 -6.8625879 -1.1024011 0
-9.6297741 -7.346199 -1.1035181 0
-10.407717 -7.9396625 -1.1100048 0
-11.288915 -8.6118956 -1.1144217 0
-12.35167 -9.4226332 -1.121435 0
-14.008931 -10.686896 -1.1609663 0
-15.674919 -11.957816 -1.1750065 0
-17.809893 -13.586509 -1.1942332 0
-20.593321 -15.709884 -1.2181633 0
-1.9784132 -1.5481079 -1.0558952 0
-2.0053797 -1.5692092 -1.0515617 0
-2.0498445 -1.604003 -1.0558357 0
-2.079252 -1.6270142 -1.0517654 0
-2.1153302 -1.6552455 -1.0505619 0
-2.1751091 -1.7020224 -1.0603453 0
-2.206301 -1.7264301 -1.0554571 0
-2.26017 -1.7685826 -1.0607396 0
-2.2927048 -1.7940412 -1.0553224 0
-2.3333557 -1.8258504 -1.053076 0
-2.3845716 -1.8659267 -1.0548679 0
-2.4323254 -1.9032942 -1.054338 0
-2.4858491 -1.9451765 -1.0555021 0
-2.541039 -1.9883624 -1.0565039 0
-2.5971143 -2.0322416 -1.0569857 0
-2.6529319 -2.0759187 -1.0564723 0
-2.7125788 -2.1225924 -1.056566 0
-2.7731645 -2.1700006 -1.0560694 0
-2.853265 -2.2326791 -1.0618751 0
-2.9104319 -2.2774124 -1.0580499 0
-2.988337 -2.3383729 -1.0606912 0
-3.0680645 -2.4007597 -1.0627171 0
-3.1490538 -2.464134 -1.0638957 0
-3.2228405 -2.521872 -1.0614117 0
-3.3154309 -2.5943239 -1.0637968 0
-3.4216936 -2.6774745 -1.0689746 0
-3.5051088 -2.7427468 -1.0655029 0
-3.5921292 -2.8108404 -1.0617818 0
-3.7162733 -2.9079831 -1.067351 0
-3.8196876 -2.9889047 -1.065151 0
-3.9330137 -3.0775824 -1.0639951 0
-4.0937624 -3.2033684 -1.0734767 0
-4.2260699 -3.3068988 -1.0731565 0
-4.3673091 -3.4174187 -1.0729288 0
-4.5004511 -3.5216019 -1.0685341 0
-4.6774216 -3.6600814 -1.0720793 0
-4.8495173 -3.7947464 -1.0717261 0
-5.0417032 -3.9451315 -1.0729133 0
-5.2589393 -4.115119 -1.0761693 0
-5.467762 -4.2785225 -1.0743119 0
-5.7142057 -4.4713645 -1.0762241 0
-6.0392809 -4.7257361 -1.0883853 0
-6.3396254 -4.9607553 -1.0911002 0
-6.6720147 -5.22085 -1.0942909 0
-7.0348253 -5.5047493 -1.0969348 0
-7.4500628 -5.8296728 -1.1015574 0
-7.8880334 -6.1723843 -1.1027483 0
-8.4210186 -6.5894456 -1.1094912 0
-9.0011587 -7.0434051 -1.1135832 0
-9.677145 -7.5723643 -1.1195322 0
-10.459267 -8.1843739 -1.126151 0
-11.381926 -8.906354 -1.1343292 0
-12.465286 -9.7540836 -1.1425538 0
-13.802567 -10.800507 -1.1547831 0
-15.440563 -12.082237 -1.1684875 0
-17.54056 -13.725485 -1.1874007 0
-20.284153 -15.872346 -1.2113286 0
-1.9498119 -1.5647594 -1.0508201 0
-1.9755476 -1.5854126 -1.0460621 0
-2.0120592 -1.6147139 -1.0465212 0
-2.0631492 -1.6557145 -1.0538391 0
-2.1061242 -1.6902027 -1.0562319 0
-2.1420753 -1.7190541 -1.0544666 0
-2.1924775 -1.7595028 -1.0591142 0
-2.2266591 -1.7869341 -1.0552448 0
-2.2690265 -1.8209348 -1.0546501 0
-2.3281646 -1.8683941 -1.0610217 0
-2.3636177 -1.8968458 -1.0558367 0
-2.4157701 -1.9386991 -1.0574154 0
-2.4660623 -1.9790596 -1.0573534 0
-2.5229046 -2.0246766 -1.0592353 0
-2.5505128 -2.0468326 -1.0481837 0
-2.633409 -2.1133585 -1.0589664 0
-2.6874123 -2.156697 -1.0570132 0
-2.7544687 -2.210511 -1.0592208 0
-2.8145187 -2.2587023 -1.0577117 0
-2.8842716 -2.3146801 -1.0588068 0
-2.9577188 -2.3736229 -1.0601032 0
-3.0333226 -2.4342961 -1.0609713 0
-3.1184378 -2.5026026 -1.0638684 0
-3.1948881 -2.5639555 -1.0625088 0
-3.2860005 -2.6370749 -1.0646777 0
-3.3611906 -2.6974161 -1.0603549 0
-3.4784386 -2.7915099 -1.0677494 0
-3.5706329 -2.8654976 -1.0657623 0
-3.6803939 -2.9535828 -1.0673964 0
-3.7966454 -3.0468767 -1.0690923 0
-3.9095099 -3.1374524 -1.0679928 0
-4.0254054 -3.2304606 -1.0658876 0
-4.1623516 -3.3403625 -1.0673258 0
-4.3090239 -3.4580696 -1.0689754 0
-4.4949613 -3.6072879 -1.0776809 0
-4.6599889 -3.7397256 -1.0785422 0
-4.8330784 -3.878633 -1.0785518 0
-5.0266566 -4.0339828 -1.0801858 0
-5.2287569 -4.1961722 -1.08047 0
-5.4470658 -4.3713689 -1.0807252 0
-5.6881042 -4.5648065 -1.0817982 0
-5.9735737 -4.793901 -1.087085 0
-6.2594328 -5.0233083 -1.0878472 0
-6.5758357 -5.2772274 -1.089077 0
-6.9403176 -5.5697303 -1.092795 0
-7.3323555 -5.8843479 -1.0947691 0
-7.7762442 -6.2405763 -1.097765 0
-8.3083906 -6.667634 -1.1053709 0
-8.8651953 -7.1144795 -1.1075017 0
-9.536047 -7.6528502 -1.1140113 0
-10.305399 -8.2702694 -1.1204488 0
-11.205596 -8.9926929 -1.1276911 0
-12.290461 -9.8633165 -1.1375602 0
-13.608749 -10.921268 -1.149716 0
-15.230948 -12.223112 -1.163911 0
-17.295799 -13.880192 -1.1822963 0
-20.011127 -16.059292 -1.2067256 0
-1.9358459 -1.5930761 -1.053771 0
-1.9744318 -1.6248298 -1.0559708 0
-2.0008368 -1.6465595 -1.0511355 0
-2.0413558 -1.679904 -1.0531789 0
-2.0864365 -1.7170025 -1.0568669 0
-2.1225202 -1.7466969 -1.0553335 0
-2.1498816 -1.7692137 -1.0489674 0
-2.2063749 -1.815704 -1.056133 0
-2.2424939 -1.8454276 -1.0527855 0
-2.2969737 -1.8902611 -1.05732 0
-2.3497627 -1.9337028 -1.0601891 0
-2.3813114 -1.9596655 -1.0528003 0
-2.4279866 -1.9980761 -1.0514829 0
-2.4903364 -2.0493858 -1.056062 0
-2.5421395 -2.0920167 -1.0552347 0
-2.6141086 -2.1512425 -1.0617622 0
-2.6655433 -2.1935699 -1.0589406 0
-2.7206552 -2.2389235 -1.056725 0
-2.7987883 -2.3032219 -1.0623631 0
-2.8645928 -2.3573749 -1.0621437 0
-2.9286873 -2.4101205 -1.0602398 0
-3.0072331 -2.4747586 -1.0624094 0
-3.0787802 -2.5336373 -1.0608875 0
-3.1713042 -2.6097784 -1.0652574 0
-3.2456863 -2.67099 -1.0621769 0
-3.327327 -2.7381752 -1.0602137 0
-3.4360604 -2.8276558 -1.0653334 0
-3.5238917 -2.8999352 -1.0623741 0
-3.6302218 -2.987438 -1.0634189 0
-3.7631557 -3.0968342 -1.070304 0
-3.8652792 -3.1808751 -1.0665143 0
-3.9934278 -3.2863331 -1.0680398 0
-4.1379018 -3.4052258 -1.0717123 0
-4.2731786 -3.5165501 -1.0707293 0
-4.4270258 -3.6431563 -1.0720526 0
-4.5955858 -3.7818701 -1.0743182 0
-4.759656 -3.9168894 -1.0728339 0
-4.9608684 -4.0824742 -1.0767546 0
-5.149169 -4.2374334 -1.0747098 0
-5.386919 -4.4330864 -1.0795255 0
-5.615644 -4.6213121 -1.0787431 0
-5.8879995 -4.8454432 -1.0822731 0
-6.157084 -5.0668821 -1.0808061 0
-6.4774613 -5.3305321 -1.0835582 0
-6.8396859 -5.6286197 -1.0877656 0
-7.2323136 -5.9517269 -1.0906768 0
-7.679986 -6.3201323 -1.0950645 0
-8.1714897 -6.7246079 -1.0980753 0
-8.741396 -7.1936045 -1.103003 0
-9.4061089 -7.7406201 -1.1098671 0
-10.150514 -8.3532171 -1.1146924 0
-11.062301 -9.1035585 -1.1244508 0
-12.122835 -9.9763098 -1.133314 0
-13.410548 -11.036015 -1.1443496 0
-15.014382 -12.355866 -1.1588843 0
-17.044836 -14.026799 -1.1768423 0
-19.735395 -16.240955 -1.2020501 0
-1.9141899 -1.6151363 -1.052714 0
-1.9445386 -1.6407436 -1.0506941 0
-1.9805623 -1.6711394 -1.0512003 0
-2.0196569 -1.7041261 -1.0527154 0
-2.0557325 -1.7345656 -1.0520384 0
-2.1019502 -1.7735628 -1.0558695 0
-2.1382077 -1.8041558 -1.0540161 0
-2.1869459 -1.8452797 -1.0576142 0
-2.2254453 -1.8777643 -1.055542 0
-2.2692127 -1.914694 -1.055299 0
-2.3204923 -1.957962 -1.0577655 0
-2.3534479 -1.985769 -1.0511975 0
-2.4188821 -2.0409806 -1.0583287 0
-2.4614031 -2.0768585 -1.0545425 0
-2.5048935 -2.1135545 -1.0504826 0
-2.5778275 -2.1750939 -1.0578094 0
-2.6421468 -2.2293646 -1.0604563 0
-2.6959877 -2.2747939 -1.0579284 0
-2.7607234 -2.329416 -1.058707 0
-2.8239741 -2.3827851 -1.0578668 0
-2.9013693 -2.4480886 -1.0611676 0
-2.9644079 -2.5012789 -1.0580659 0
-3.0493701 -2.5729675 -1.0615749 0
-3.1195326 -2.6321683 -1.0586591 0
-3.2201774 -2.7170894 -1.0646824 0
-3.3046682 -2.7883804 -1.0638385 0
-3.3969193 -2.866219 -1.0640448 0
-3.5046418 -2.9571121 -1.0674523 0
-3.5950105 -3.0333626 -1.0639502 0
-3.703439 -3.1248515 -1.0641677 0
-3.8356352 -3.2363946 -1.0692347 0
-3.9491663 -3.3321886 -1.0670799 0
-4.0773392 -3.4403372 -1.0669028 0
-4.2089682 -3.5514016 -1.0655017 0
-4.3966184 -3.7097354 -1.0756544 0
-4.5666156 -3.8531737 -1.0785403 0
-4.7415042 -4.0007396 -1.0797493 0
-4.9295087 -4.1593723 -1.0809673 0
-5.1219721 -4.3217673 -1.0800433 0
-5.356595 -4.5197349 -1.0845041 0
-5.5947943 -4.7207203 -1.0858067 0
-5.8624349 -4.9465475 -1.088672 0
-6.1448474 -5.1848388 -1.0897672 0
-6.4707222 -5.4598022 -1.0935789 0
-6.8439279 -5.7747016 -1.09965 0
-7.2252417 -6.0964432 -1.1008322 0
-7.6822257 -6.4820328 -1.1066653 0
-8.1951962 -6.9148622 -1.1126029 0
-8.6161022 -7.2700095 -1.0983902 0
-9.2582483 -7.8118334 -1.1036712 0
-10.0177 -8.4526358 -1.1114373 0
-10.884961 -9.1844053 -1.1178198 0
-11.951065 -10.083952 -1.1287626 0
-13.210347 -11.146497 -1.1388757 0
-14.787896 -12.477585 -1.1531583 0
-16.803814 -14.178556 -1.1721501 0
-19.427559 -16.392395 -1.1954871 0
-1.8857933 -1.63129 -1.0480496 0
-1.9378786 -1.6763459 -1.0581534 0
-1.9588121 -1.6944543 -1.0506356 0
-2.0019712 -1.7317889 -1.054517 0
-2.0376136 -1.7626208 -1.0537782 0
-2.0860965 -1.8045607 -1.0589722 0
-2.1170566 -1.8313425 -1.0546108 0
-2.1664503 -1.87407 -1.0587668 0
-2.2056978 -1.9080207 -1.0572238 0
-2.2287939 -1.9279999 -1.0474483 0
-2.2875299 -1.978809 -1.0537521 0
-2.3388216 -2.0231783 -1.0556967 0
-2.3887689 -2.0663848 -1.0561907 0
-2.4521179 -2.1211846 -1.0616591 0
-2.484607 -2.1492889 -1.0529789 0
-2.5436668 -2.2003779 -1.0548146 0
-2.6017444 -2.2506177 -1.055268 0
-2.6745324 -2.3135822 -1.0605927 0
-2.7301717 -2.3617125 -1.0580475 0
-2.7877228 -2.4114966 -1.0553153 0
-2.8509798 -2.4662166 -1.0537497 0
-2.95207 -2.553664 -1.0647895 0
-3.0275986 -2.6189992 -1.0651265 0
-3.0930037 -2.6755774 -1.0607411 0
-3.1801083 -2.7509265 -1.062538 0
-3.2741146 -2.8322458 -1.0651336 0
-3.3465981 -2.8949473 -1.0593528 0
-3.4750979 -3.0061049 -1.0696317 0
-3.5757191 -3.0931463 -1.0694165 0
-3.6830878 -3.1860249 -1.0694964 0
-3.7931044 -3.2811937 -1.0685451 0
-3.9216256 -3.39237 -1.0708287 0
-4.0665913 -3.5177712 -1.0753278 0
-4.1895781 -3.6241598 -1.0717936 0
-4.3317285 -3.7471261 -1.0709705 0
-4.4920874 -3.8858433 -1.0721425 0
-4.6704392 -4.0401249 -1.0747982 0
-4.8554173 -4.2001386 -1.0759642 0
-5.0593033 -4.3765087 -1.078095 0
-5.2742295 -4.562429 -1.079105 0
-5.5221944 -4.7769289 -1.0830349 0
-5.7769814 -4.9973302 -1.0841324 0
-6.0588851 -5.2411885 -1.0858697 0
-6.3911371 -5.5286007 -1.0915354 0
-6.735043 -5.8260937 -1.0935831 0
-7.1260452 -6.1643271 -1.0971845 0
-7.5658598 -6.544785 -1.1014122 0
-8.0658188 -6.9772701 -1.1066024 0
-8.647294 -7.4802704 -1.1140082 0
-9.3041906 -8.0485134 -1.1208613 0
-10.074821 -8.7151413 -1.1295791 0
-10.966548 -9.4865217 -1.1380916 0
-11.77384 -10.184863 -1.1237675 0
-13.023052 -11.265485 -1.1345856 0
-14.568913 -12.602718 -1.1480798 0
-16.56002 -14.32511 -1.1673434 0
-19.158089 -16.572548 -1.191355 0
-1.8744768 -1.6622312 -1.0530401 0
-1.9072335 -1.6912789 -1.0526962 0
-1.9418828 -1.722005 -1.0528331 0
-1.9799905 -1.7557976 -1.0542314 0
-2.0086677 -1.7812278 -1.0500565 0
-2.0520818 -1.8197261 -1.0529845 0
-2.0841157 -1.848133 -1.0494426 0
-2.1322932 -1.8908553 -1.0533571 0
-2.172581 -1.9265814 -1.0526259 0
-2.220855 -1.9693892 -1.0550183 0
-2.2683561 -2.0115118 -1.0562336 0
-2.3124323 -2.0505974 -1.055087 0
-2.3642678 -2.0965636 -1.0566764 0
-2.4102573 -2.1373458 -1.0548342 0
-2.4565248 -2.1783745 -1.0523502 0
-2.5172052 -2.2321842 -1.055144 0
-2.5778511 -2.2859631 -1.0568981 0
-2.6507592 -2.3506157 -1.0625471 0
-2.7136259 -2.4063642 -1.0630223 0
-2.7720532 -2.4581759 -1.0607458 0
-2.8404465 -2.5188251 -1.0612241 0
-2.909822 -2.5803452 -1.0609152 0
-2.9884639 -2.6500823 -1.0627425 0
-3.0751519 -2.7269549 -1.066038 0
-3.1487265 -2.7921987 -1.0634441 0
-3.2363763 -2.8699238 -1.0642565 0
-3.3252969 -2.948776 -1.0640073 0
-3.419775 -3.0325565 -1.0640006 0
-3.5146644 -3.1167016 -1.062538 0
-3.6189001 -3.2091348 -1.0622358 0
-3.7458749 -3.3217323 -1.0666661 0
-3.8602216 -3.4231317 -1.065475 0
-4.0051494 -3.5516496 -1.0705481 0
-4.1228938 -3.6560619 -1.0661546 0
-4.2648206 -3.7819183 -1.0658454 0
-4.4375887 -3.9351239 -1.0706031 0
-4.6084943 -4.086678 -1.0720261 0
-4.7874374 -4.2453594 -1.072387 0
-4.9785237 -4.4148092 -1.0723685 0
-5.1937175 -4.6056371 -1.0741383 0
-5.4478984 -4.831037 -1.0800327 0
-5.7056265 -5.0595832 -1.0823355 0
-5.9695344 -5.2936087 -1.0814403 0
-6.2912555 -5.5789018 -1.0861109 0
-6.6370664 -5.8855567 -1.0893432 0
-7.0329418 -6.2366076 -1.0945743 0
-7.4618912 -6.6169872 -1.0980387 0
-7.9525619 -7.0520997 -1.1028777 0
-8.524559 -7.5593295 -1.1100875 0
-9.1562462 -8.1194916 -1.114982 0
-9.9168978 -8.7940159 -1.123912 0
-10.812318 -9.588048 -1.1342355 0
-11.887902 -10.541844 -1.14694 0
-13.189764 -11.696298 -1.161552 0
-14.363423 -12.737064 -1.1441422 0
-16.313293 -14.466152 -1.1624025 0
-18.869661 -16.733065 -1.1861244 0
-22.392 -19.856571 -1.2196395 0
-1.8512113 -1.682712 -1.0515146 0
-1.8909988 -1.718878 -1.0553218 0
-1.9239079 -1.7487917 -1.0546666 0
-1.9673058 -1.7882395 -1.0591054 0
-1.9840366 -1.8034474 -1.0486937 0
-2.0322733 -1.8472936 -1.0543963 0
-2.0758526 -1.8869061 -1.0568852 0
-2.1083257 -1.9164237 -1.0530789 0
-2.1576202 -1.9612312 -1.0569818 0
-2.1946321 -1.9948742 -1.0541345 0
-2.2479367 -2.0433271 -1.0583451 0
-2.295469 -2.0865331 -1.0589737 0
-2.3420222 -2.1288488 -1.0583537 0
-2.3863163 -2.1691113 -1.0559499 0
-2.4443245 -2.2218394 -1.0587475 0
-2.4890523 -2.262496 -1.0549248 0
-2.5544968 -2.3219836 -1.0589492 0
-2.6085939 -2.3711569 -1.0572528 0
-2.6594126 -2.4173501 -1.0533496 0
-2.7383935 -2.4891419 -1.059498 0
-2.8095131 -2.5537882 -1.0613192 0
-2.8683345 -2.6072555 -1.057398 0
-2.9573143 -2.6881363 -1.0633396 0
-3.0297618 -2.7539895 -1.0619621 0
-3.1008387 -2.8185971 -1.0588962 0
-3.1815019 -2.8919182 -1.0578253 0
-3.3006084 -3.0001833 -1.0678313 0
-3.4032748 -3.0935049 -1.0706211 0
-3.4991009 -3.180609 -1.0695758 0
-3.6091504 -3.2806416 -1.0711341 0
-3.7045906 -3.3673947 -1.0666205 0
-3.841516 -3.4918571 -1.0720823 0
-3.9701295 -3.6087639 -1.0729675 0
-4.1095595 -3.7355027 -1.0745033 0
-4.2447548 -3.8583925 -1.0726067 0
-4.40098 -4.0003982 -1.0735575 0
-4.5765433 -4.1599813 -1.0764116 0
-4.753768 -4.3210745 -1.0766656 0
-4.9640422 -4.5122094 -1.0811187 0
-5.1869812 -4.7148566 -1.0846535 0
-5.4135704 -4.9208212 -1.0851409 0
-5.6686306 -5.1526656 -1.0872543 0
-5.9661283 -5.4230847 -1.0928214 0
-6.2814221 -5.7096801 -1.0964512 0
-6.5362372 -5.9413013 -1.084703 0
-6.9282732 -6.2976542 -1.0902541 0
-7.356998 -6.687356 -1.0946211 0
-7.835453 -7.1222615 -1.0986993 0
-8.3925686 -7.6286674 -1.1050315 0
-9.0260887 -8.204524 -1.1113336 0
-9.7779665 -8.8879652 -1.1204679 0
-10.652626 -9.683012 -1.1298884 0
-11.708028 -10.642351 -1.1421251 0
-12.974826 -11.793842 -1.1553075 0
-14.584191 -13.256721 -1.1746238 0
-16.077177 -14.613815 -1.1582949 0
-18.607506 -16.91383 -1.1826297 0
-22.049959 -20.042948 -1.2143415 0
-1.8323073 -1.7071407 -1.0526209 0
-1.865559 -1.7381209 -1.0529724 0
-1.9047161 -1.7746032 -1.0560282 0
-1.9342436 -1.8021137 -1.0531564 0
-1.9683549 -1.8338948 -1.0522448 0
-2.006865 -1.8697741 -1.0530628 0
